VERSION 0.7
FIELDS x y z normal_x normal_y normal_z label
SIZE 4 4 4 4 4 4 4
TYPE F F F F F F I
COUNT 1 1 1 1 1 1 1
WIDTH 531
HEIGHT 1
VIEWPOINT 0 0 0 1 0 0 0
POINTS 531
DATA ascii
-1.2327767610549927 4.033305644989014 4.926808834075928 0.9937050342559814 0.11202628165483475 0.0007071212748996913 606845
-1.232718586921692 4.033344745635986 4.988121032714844 0.9936200976371765 0.11277735978364944 -0.0006506204954348505 606853
-1.2335025072097778 4.0328145027160645 5.049508094787598 0.9935215711593628 0.11364088952541351 0.0007796857389621437 606934
-1.233425259590149 4.032866477966309 5.1108622550964355 0.9934648275375366 0.11413797736167908 -0.00013626292638946325 606821
-1.2330763339996338 4.033102512359619 5.172218322753906 0.9937658905982971 0.11138778924942017 -0.00470254709944129 606825
-1.2328537702560425 4.033252716064453 5.2336039543151855 0.9948701858520508 0.10088443011045456 -0.007458952721208334 606751
-1.2332442998886108 4.032988548278809 5.295063018798828 0.9913869500160217 0.13051912188529968 0.010795241221785545 606743
-4.493772029876709 1.8283497095108032 5.633453369140625 0.0 1.0 0.0 201129
-4.495028018951416 1.8274999856948853 5.707398891448975 0.0 1.0 0.0 200613
-4.494883060455322 1.8275978565216064 5.7812581062316895 0.0 1.0 0.0 200614
-4.864579677581787 1.5776236057281494 5.890769958496094 0.29880011081695557 0.6748039126396179 -0.674802303314209 236648
-4.8346757888793945 1.5978431701660156 5.963123321533203 0.0 1.0 0.0 236776
-4.834521293640137 1.5979474782943726 6.038379669189453 0.0 1.0 0.0 236803
-4.834297180175781 1.5980987548828125 6.113667964935303 0.0 1.0 0.0 236707
-4.835856914520264 1.5970438718795776 6.18919563293457 0.0 1.0 0.0 236758
-4.8356499671936035 1.5971834659576416 6.2645745277404785 0.0 1.0 0.0 236750
-4.83545446395874 1.5973155498504639 6.339998245239258 0.0 1.0 0.0 236805
-4.872096061706543 1.5725396871566772 6.419994831085205 0.2987939417362213 0.6748052835464478 0.6748036742210388 236051
-1.030807614326477 4.169863700866699 6.9301300048828125 0.0 0.0 -1.0 509123
-0.6257008910179138 4.443780899047852 6.915783882141113 -0.0 0.0 -1.0 508914
-0.34166109561920166 4.635837078094482 6.921603679656982 0.0 0.0 -1.0 509017
-0.34124258160591125 4.636119842529297 6.980816841125488 0.0 1.0 0.0 507123
-0.34080198407173157 4.636417388916016 7.040082931518555 0.0 1.0 0.0 507079
-0.3403392434120178 4.636730194091797 7.099401950836182 0.0 1.0 -0.0 507010
0.27270612120628357 4.983850002288818 0.05150003358721733 0.0 1.0 0.0 56799
0.27506309747695923 4.985454559326172 0.11038919538259506 0.0 1.0 -0.0 56627
0.2743202745914459 4.984948635101318 0.1683790236711502 0.0 1.0 0.0 619591
0.2735837697982788 4.984447002410889 0.2262982875108719 -0.0 1.0 0.0 619642
0.2729087471961975 4.983987331390381 0.284162700176239 0.0 1.0 -0.0 619636
0.20988021790981293 4.941081523895264 0.3265572190284729 0.0 0.0 1.0 616948
-0.009777099825441837 4.7915520668029785 0.3313063681125641 0.0 0.0 1.0 616905
-0.2362031638622284 4.637415409088135 0.3360891342163086 0.0 0.0 1.0 616041
-0.5454325079917908 4.426910877227783 0.32310059666633606 0.0 0.0 1.0 616783
-0.6664140224456787 4.3445539474487305 0.35599973797798157 1.0 0.0 0.0 623554
-0.667003870010376 4.344152450561523 0.4171452820301056 1.0 -0.0 0.0 623242
-0.6675732731819153 4.343764781951904 0.478228360414505 1.0 0.0 0.0 623330
-0.6653251051902771 4.345294952392578 0.5398641228675842 1.0 0.0 0.0 623330
-0.6658676862716675 4.344925403594971 0.6008110046386719 1.0 -0.0 0.0 623859
-0.666388213634491 4.344571113586426 0.6616990566253662 1.0 0.0 0.0 623787
-0.6668724417686462 4.344241142272949 0.722531795501709 1.0 0.0 0.0 623787
-0.6647409796714783 4.345692157745361 0.7838369011878967 1.0 0.0 -0.0 623893
-0.6652236580848694 4.345363616943359 0.8445377945899963 1.0 0.0 0.0 623497
-0.6656637191772461 4.34506368637085 0.9051883220672607 1.0 0.0 -0.0 623503
-0.6660817861557007 4.344779014587402 0.965785026550293 1.0 -0.0 0.0 623847
-0.6664840579032898 4.344505310058594 1.0263276100158691 1.0 0.0 0.0 623601
-0.6644896864891052 4.345862865447998 1.087256908416748 1.0 0.0 0.0 623354
-0.6648856401443481 4.345592975616455 1.1476809978485107 1.0 0.0 0.0 623257
-0.6652563810348511 4.345340728759766 1.2080562114715576 1.0 0.0 0.0 623214
-0.6655939817428589 4.3451104164123535 1.2683846950531006 1.0 -0.0 0.0 623277
-0.6637462973594666 4.346368312835693 1.3290317058563232 1.0 -0.0 0.0 623277
-0.6640855073928833 4.346137523651123 1.3892502784729004 1.0 0.0 0.0 623236
-0.6644010543823242 4.345922470092773 1.4494240283966064 1.0 0.0 -0.0 623502
-0.6647008061408997 4.3457183837890625 1.5095524787902832 1.0 0.0 -0.0 623502
-0.664973795413971 4.345532417297363 1.5696382522583008 1.0 0.0 0.0 623833
-0.663299560546875 4.346672058105469 1.6299703121185303 1.0 0.0 0.0 623373
-0.6635819673538208 4.346479415893555 1.6899571418762207 1.0 0.0 0.0 623831
-0.6638407707214355 4.346303462982178 1.7499046325683594 1.0 0.0 0.0 623831
-0.6640806198120117 4.346139907836914 1.809812307357788 1.0 0.0 0.0 623634
-0.6643046736717224 4.345987319946289 1.8696811199188232 1.0 0.0 0.0 623366
-0.664506733417511 4.345849514007568 1.9295129776000977 1.0 0.0 0.0 623366
-0.6630468964576721 4.346843242645264 1.989517092704773 1.0 0.0 0.0 623309
-0.6632630825042725 4.346695899963379 2.049264430999756 1.0 0.0 0.0 623376
-0.6634540557861328 4.3465657234191895 2.108978271484375 1.0 0.0 0.0 623561
-0.6636292934417725 4.346446514129639 2.16865873336792 1.0 0.0 0.0 623717
-0.6637950539588928 4.3463335037231445 2.2283060550689697 1.0 0.0 0.0 623962
-0.6625417470932007 4.34718656539917 2.2880730628967285 1.0 0.0 0.0 624031
-0.6627138257026672 4.347069263458252 2.347649097442627 1.0 -0.0 0.0 623171
-0.6628811359405518 4.346955299377441 2.4071950912475586 1.0 0.0 0.0 623181
0.27877122163772583 4.987974643707275 2.5576205253601074 0.0 1.0 0.0 624623
0.2786512076854706 4.9878926277160645 2.6135337352752686 0.0 1.0 -0.0 624661
0.27854064106941223 4.987817287445068 2.669421911239624 0.0 1.0 0.0 494533
0.27949434518814087 4.988466739654541 2.7253758907318115 0.0 1.0 0.0 494533
0.2793743312358856 4.98838472366333 2.7812106609344482 0.0 1.0 -0.0 494443
0.27925905585289 4.988306045532227 2.8370232582092285 0.0 1.0 -0.0 494443
-0.15272872149944305 4.694235324859619 2.860964059829712 0.0 0.0 1.0 496605
-0.5806029438972473 4.4029645919799805 2.8884458541870117 0.08540976792573929 0.9963458776473999 -0.0 560672
-0.5806772112846375 4.402914047241211 2.9474573135375977 0.08540976792573929 0.9963458776473999 -0.0 560672
-0.5799158811569214 4.403432369232178 3.0065011978149414 0.07821250706911087 0.9969367384910583 -0.0 560682
-0.8064130544662476 4.249246597290039 3.052203893661499 0.0 0.0 1.0 560781
-1.2264715433120728 3.963296413421631 3.088994264602661 0.9989982843399048 0.043616846203804016 -0.00999357271939516 602679
-1.226555347442627 3.9632394313812256 3.150376796722412 0.998981773853302 0.043616123497486115 0.011536902748048306 602682
-1.2269701957702637 3.9629569053649902 3.21172833442688 0.9990060925483704 0.04276756942272186 -0.012563413940370083 577079
-1.2265368700027466 3.963251829147339 3.273104667663574 0.9955136179924011 0.0931503102183342 0.016603605821728706 576885
-1.2267167568206787 3.9631290435791016 3.334439754486084 -0.9993534684181213 -0.03539976477622986 -0.006293063051998615 576947
-1.2261935472488403 3.9634852409362793 3.3957889080047607 0.9995331764221191 0.03039310872554779 -0.0031137752812355757 577316
-1.226524829864502 3.963259696960449 3.457095146179199 0.9988470077514648 0.0448581725358963 0.017100946977734566 577249
-1.2263563871383667 3.963374137878418 3.5184080600738525 0.9991692304611206 0.04033852741122246 0.0058037592098116875 577439
-1.2261121273040771 3.9635403156280518 3.579712390899658 0.9993056058883667 0.03665630891919136 -0.006686484906822443 577522
-1.2261202335357666 3.9635345935821533 3.6410019397735596 0.9967302083969116 0.08048828691244125 0.007105283439159393 577303
-1.2263317108154297 3.963390588760376 3.7022817134857178 -0.9982145428657532 -0.05960604175925255 0.0038548947777599096 577294
-1.2266299724578857 3.9631874561309814 3.763556480407715 0.9982046484947205 0.05961130931973457 -0.005827165674418211 577272
-1.2265576124191284 3.9632365703582764 3.8248326778411865 0.9988513588905334 0.046949539333581924 0.009581797756254673 576796
-1.2266303300857544 3.9631869792938232 3.8861045837402344 0.9991459846496582 0.04127022624015808 -0.0020002664532512426 576961
-1.2261433601379395 3.9635183811187744 3.947376251220703 0.9963348507881165 0.08389151841402054 0.016706958413124084 577602
-1.2262791395187378 3.963425874710083 4.008645057678223 0.9990060925483704 0.04276756942272186 0.012563413940370083 577081
-1.2416425943374634 3.9529671669006348 4.070001125335693 0.0 0.0 -1.0 595756
-1.201988935470581 3.9799609184265137 4.130956172943115 0.9979730248451233 0.06363821774721146 -0.0 593013
-1.2264736890792847 3.9632930755615234 4.19246244430542 0.9990106821060181 0.043617382645606995 -0.00866894144564867 607543
-1.2265968322753906 3.9632091522216797 4.253743648529053 0.9992588758468628 0.03741474077105522 0.009047388099133968 606752
-1.2268966436386108 3.9630050659179688 4.315034866333008 0.999019205570221 0.04427821561694145 0.0 606746
-1.2263859510421753 3.963352680206299 4.376315116882324 0.9990473389625549 0.04239609092473984 -0.010338917374610901 607565
-1.2266148328781128 3.9631967544555664 4.437620162963867 0.9991216063499451 0.040243759751319885 0.011682159267365932 607674
-1.2268893718719482 3.9630095958709717 4.498937129974365 0.9989567995071411 0.04566438868641853 0.0 607438
-0.2344086617231369 4.638629913330078 4.524640083312988 0.0 1.0 0.0 510489
-0.2348392903804779 4.638336658477783 4.582235813140869 0.0 1.0 0.0 510489
-0.2348095327615738 4.638356685638428 4.63982629776001 0.0 1.0 -0.0 510372
-0.2347702980041504 4.638383388519287 4.697429656982422 0.0 1.0 -0.0 510372
-0.6597388386726379 4.349090576171875 4.776727676391602 -0.2582997679710388 0.9639885425567627 -0.06330253183841705 514915
-1.2265106439590454 3.9632668495178223 4.86702823638916 0.9993150234222412 0.03700647130608559 0.0 606838
-1.2264587879180908 3.9633021354675293 4.92842960357666 0.9993100166320801 0.037140898406505585 0.00024627786478959024 606886
-1.226377010345459 3.96335768699646 4.989847183227539 0.9992899298667908 0.03767435625195503 0.0006494620465673506 607452
-1.2271828651428223 3.962808847427368 5.051342487335205 0.9992760419845581 0.038043323904275894 0.0 607011
-1.2271106243133545 3.962858200073242 5.112803936004639 0.999272882938385 0.03812607750296593 0.0001380859175696969 606827
-1.226921558380127 3.962986707687378 5.1742777824401855 0.9993744492530823 0.03496324270963669 -0.005302147474139929 607725
-1.2266348600387573 3.963181734085083 5.235766410827637 0.9994472861289978 0.03324425220489502 0.0 607580
-1.2270859479904175 3.962874412536621 5.297337532043457 0.9989957213401794 0.043616730719804764 0.010253939777612686 607581
-4.362567901611328 1.8284296989440918 5.6257853507995605 0.0 1.0 0.0 200818
-4.36384391784668 1.8275611400604248 5.699391841888428 0.0 1.0 0.0 201583
-4.363668918609619 1.827679991722107 5.772907733917236 0.0 1.0 -0.0 200669
-4.3635573387146 1.8277558088302612 5.846463203430176 -0.0 1.0 0.0 200615
-4.701252460479736 1.597873330116272 5.953941345214844 0.0 1.0 0.0 240147
-4.701046466827393 1.5980136394500732 6.028845310211182 -0.0 1.0 0.0 240153
-4.7008161544799805 1.5981700420379639 6.103785037994385 -0.0 1.0 0.0 240141
-4.702375888824463 1.597108244895935 6.178965091705322 0.0 1.0 -0.0 240143
-4.702160358428955 1.597254991531372 6.253994941711426 0.0 1.0 0.0 240136
-4.702003002166748 1.5973620414733887 6.329074859619141 0.0 1.0 0.0 240152
-4.710952281951904 1.591269612312317 6.405322074890137 -0.0 1.0 0.0 240148
-0.9968655109405518 4.11959171295166 6.930121898651123 0.0 -0.0 -1.0 509607
-0.5927411317825317 4.394694805145264 6.915798187255859 0.0 0.0 -1.0 509722
-0.301003634929657 4.593292236328125 6.920022487640381 0.0 0.0 -1.0 509191
-0.2380053550004959 4.6361775398254395 6.966925621032715 0.0 1.0 0.0 507023
-0.23756881058216095 4.636474609375 7.025918006896973 0.0 1.0 0.0 507023
-0.23710545897483826 4.636789798736572 7.084962844848633 0.0 1.0 -0.0 507103
0.371268093585968 4.983858585357666 0.06937418133020401 0.0 1.0 0.0 56797
0.3736119866371155 4.985465049743652 0.12799537181854248 0.0 1.0 -0.0 56626
0.37289419770240784 4.984972953796387 0.18572507798671722 0.0 1.0 0.0 619595
0.37219056487083435 4.984490871429443 0.24338684976100922 0.0 1.0 -0.0 619632
0.3714979588985443 4.984015941619873 0.3009811341762543 0.0 -0.0 1.0 616388
0.24169018864631653 4.895055294036865 0.32654887437820435 0.0 -0.0 1.0 617026
0.02249377779662609 4.7448344230651855 0.3312946856021881 -0.0 0.0 1.0 616563
-0.20329172909259796 4.590097904205322 0.3361133933067322 0.0 0.0 1.0 616056
-0.5118091106414795 4.378662586212158 0.32313457131385803 0.0 0.0 1.0 616422
-0.6664425134658813 4.272688388824463 0.34817206859588623 1.0 -0.0 0.0 623372
-0.6670265793800354 4.2722883224487305 0.4094501733779907 1.0 0.0 0.0 623235
-0.6675902009010315 4.271901607513428 0.4706653356552124 1.0 0.0 -0.0 623219
-0.6653438806533813 4.273441314697266 0.5324324369430542 1.0 0.0 -0.0 623294
-0.6658854484558105 4.273069858551025 0.5935100317001343 1.0 0.0 0.0 623736
-0.6664113402366638 4.272709846496582 0.6545270681381226 1.0 0.0 0.0 623912
-0.6668962836265564 4.272377014160156 0.7154902219772339 1.0 -0.0 0.0 623465
-0.6647616624832153 4.273839950561523 0.77692711353302 1.0 0.0 0.0 623727
-0.6652528643608093 4.273503303527832 0.8377562761306763 1.0 0.0 0.0 623967
-0.6656890511512756 4.273204326629639 0.8985375165939331 1.0 -0.0 0.0 623963
-0.6661079525947571 4.2729172706604 0.9592636823654175 1.0 0.0 0.0 623953
-0.6665142178535461 4.27263879776001 1.0199352502822876 1.0 0.0 0.0 623322
-0.6645117402076721 4.274011135101318 1.0809966325759888 1.0 0.0 0.0 623225
-0.6649070382118225 4.273740291595459 1.1415501832962036 1.0 0.0 -0.0 623764
-0.6652818322181702 4.2734832763671875 1.2020539045333862 1.0 0.0 -0.0 623211
-0.6656110286712646 4.273257732391357 1.262513279914856 1.0 0.0 0.0 623268
-0.6637721657752991 4.274518013000488 1.3232883214950562 1.0 0.0 0.0 623560
-0.664112389087677 4.274284839630127 1.3836361169815063 1.0 0.0 -0.0 623296
-0.6644195914268494 4.274074077606201 1.4439395666122437 1.0 0.0 0.0 623765
-0.6647235751152039 4.273865699768066 1.504196047782898 1.0 -0.0 0.0 623276
-0.6650040149688721 4.2736735343933105 1.5644093751907349 1.0 0.0 -0.0 623773
-0.6633193492889404 4.27482795715332 1.6248723268508911 1.0 0.0 0.0 623421
-0.6636092066764832 4.274629592895508 1.6849867105484009 1.0 0.0 0.0 623784
-0.6638628840446472 4.274455547332764 1.7450629472732544 1.0 0.0 0.0 623725
-0.6640976667404175 4.274294376373291 1.805099606513977 1.0 0.0 0.0 623707
-0.6643324494361877 4.274133682250977 1.8650952577590942 1.0 0.0 0.0 623541
-0.6645326614379883 4.273996353149414 1.9250556230545044 1.0 -0.0 0.0 623423
-0.6630713939666748 4.274997711181641 1.9851882457733154 1.0 0.0 0.0 623563
-0.6632951498031616 4.274844169616699 2.04506254196167 1.0 0.0 0.0 623542
-0.6634811758995056 4.274716854095459 2.104904890060425 1.0 0.0 0.0 623883
-0.6636561751365662 4.274596691131592 2.164713144302368 1.0 0.0 0.0 623378
-0.6638280153274536 4.274478912353516 2.2244873046875 1.0 0.0 0.0 623782
-0.6625477075576782 4.275356292724609 2.2843854427337646 1.0 0.0 0.0 623786
-0.6627242565155029 4.275235176086426 2.344088554382324 1.0 -0.0 0.0 624127
-0.6628914475440979 4.275120735168457 2.403761863708496 1.0 0.0 -0.0 624120
0.37730076909065247 4.9879913330078125 2.564044713973999 -0.0 1.0 0.0 624622
0.3771808445453644 4.987909317016602 2.6197023391723633 0.0 1.0 -0.0 624660
0.37704992294311523 4.987819671630859 2.675333023071289 0.0 1.0 0.0 494425
0.3780234754085541 4.9884867668151855 2.7310335636138916 0.0 1.0 0.0 494425
0.37789884209632874 4.988401412963867 2.7866127490997314 0.0 1.0 -0.0 494551
0.37776321172714233 4.988308429718018 2.8421685695648193 0.0 1.0 -0.0 494551
-0.1193070188164711 4.647653102874756 2.8609745502471924 -0.0 0.0 1.0 496697
-0.4913337528705597 4.392693519592285 2.8923022747039795 0.24482035636901855 0.9694425463676453 0.015625128522515297 560656
-0.492374062538147 4.3919806480407715 2.9510369300842285 0.2472895383834839 0.9688970446586609 0.009297051467001438 560679
-0.4911472201347351 4.392821311950684 3.009901285171509 0.23494496941566467 0.9717068672180176 -0.024220673367381096 560677
-0.7715983390808105 4.200620651245117 3.0521955490112305 0.0 -0.0 1.0 560721
-1.2244848012924194 3.8902459144592285 3.087127923965454 0.9994648098945618 -0.032713450491428375 0.0 600534
-1.2245575189590454 3.890195846557617 3.148634672164917 0.9994648098945618 -0.03271344676613808 0.0 600530
-1.2246146202087402 3.8901567459106445 3.2101266384124756 0.9999206066131592 -0.0007572200265713036 0.012579097412526608 577046
-1.2251924276351929 3.889760732650757 3.2715816497802734 0.9999206066131592 -0.0007572200265713036 0.012579097412526608 577046
-1.2248749732971191 3.8899784088134766 3.3330624103546143 0.9999399781227112 0.01057045441120863 -0.0028772351797670126 577712
-1.2247509956359863 3.8900632858276367 3.394521474838257 -0.9990504384040833 0.04294876381754875 0.007320610340684652 577259
-1.2246884107589722 3.890105962753296 3.455965995788574 0.9997361302375793 -0.021507544443011284 0.008061309345066547 577219
-1.2245221138000488 3.8902199268341064 3.5174031257629395 0.9996446967124939 -0.025841113179922104 -0.006534955929964781 577253
-1.2242344617843628 3.8904170989990234 3.5788328647613525 0.9995002150535583 -0.030946558341383934 -0.0064553553238511086 577851
-1.2244535684585571 3.8902668952941895 3.640241861343384 0.9999632239341736 0.005947123747318983 0.006174727343022823 577183
-1.2247686386108398 3.8900508880615234 3.7016444206237793 0.9999632239341736 0.005947123747318983 0.006174727343022823 577183
-1.2247060537338257 3.8900938034057617 3.7630491256713867 0.9998752474784851 -0.013087806291878223 0.008845018222928047 577285
-1.2244877815246582 3.8902432918548584 3.8244504928588867 0.9998034238815308 -0.01814443990588188 -0.00799805112183094 576862
-1.2241718769073486 3.8904597759246826 3.885847806930542 0.999377429485321 -0.03456887602806091 -0.00706287520006299 577131
-1.224922776222229 3.8899452686309814 3.9472389221191406 0.9999151229858398 -0.0007085316465236247 0.013012471608817577 577053
-1.2244809865951538 3.8902478218078613 4.008633136749268 0.9999207854270935 -0.0007191282347775996 -0.012557105161249638 577050
-1.2194278240203857 3.8937108516693115 4.069998264312744 0.0 0.0 -1.0 595769
-1.1991385221481323 3.9076156616210938 4.131182670593262 0.999774694442749 0.021224938333034515 0.0 593078
-1.2244065999984741 3.89029860496521 4.192819595336914 0.9995030164718628 -0.03152209892868996 0.0 613671
-1.2243818044662476 3.8903157711029053 4.254221439361572 0.9995263814926147 -0.0306699275970459 -0.002519042696803808 613819
-1.2243727445602417 3.890321731567383 4.315629005432129 0.9995867013931274 -0.02874782122671604 0.0 613596
-1.224412441253662 3.8902945518493652 4.377044200897217 0.9993487596511841 -0.03608442097902298 0.0 613551
-1.2243766784667969 3.8903191089630127 4.438465595245361 0.9993487596511841 -0.03608442097902298 0.0 613570
-1.2243298292160034 3.8903510570526123 4.499895095825195 0.9993487596511841 -0.03608442097902298 0.0 613540
-0.13244344294071198 4.6386494636535645 4.522071838378906 0.0 1.0 0.0 510357
-0.13290005922317505 4.638336181640625 4.579405307769775 0.0 1.0 0.0 510357
-0.1328594982624054 4.638364315032959 4.636732578277588 0.0 1.0 -0.0 510500
-0.1327953338623047 4.638408184051514 4.694071292877197 0.0 1.0 -0.0 510500
-0.5456597208976746 4.355461120605469 4.772531986236572 0.13026677072048187 0.9894639253616333 0.06318071484565735 515507
-1.2244311571121216 3.8902814388275146 4.868741512298584 0.9996358752250671 -0.026985345408320427 0.0 613573
-2.7208738327026367 2.8647303581237793 5.0181193351745605 0.31140848994255066 0.9502443671226501 0.0077791642397642136 607764
-2.7207655906677246 2.864804267883301 5.0853376388549805 0.34249407052993774 0.9394071102142334 -0.014564474113285542 607948
-1.249865174293518 3.8728506565093994 5.055068016052246 1.0 0.0 0.0 615056
-1.249785304069519 3.8729054927825928 5.116745948791504 1.0 0.0 -0.0 615058
-2.7208406925201416 2.864752769470215 5.287151336669922 0.34199047088623047 0.9396119117736816 -0.013112792745232582 607910
-4.233282566070557 1.828236699104309 5.471975326538086 0.0 1.0 0.0 201453
-4.2331366539001465 1.8283367156982422 5.545058727264404 0.0 1.0 0.0 201314
-4.232976913452148 1.8284462690353394 5.618170738220215 0.0 1.0 -0.0 200867
-4.234213829040527 1.8275984525680542 5.691438674926758 0.0 1.0 -0.0 200867
-4.234080791473389 1.82768976688385 5.764621734619141 0.0 1.0 0.0 200911
-4.233917236328125 1.8278015851974487 5.837835788726807 -0.0 1.0 0.0 200617
-4.569400787353516 1.5978859663009644 5.944826602935791 0.0 1.0 -0.0 240128
-4.569174766540527 1.5980408191680908 6.019385814666748 0.0 1.0 0.0 240127
-4.56894063949585 1.5982011556625366 6.093982696533203 0.0 1.0 0.0 240160
-4.570501804351807 1.5971311330795288 6.168820381164551 0.0 1.0 0.0 240160
-4.570296287536621 1.5972720384597778 6.243508338928223 0.0 1.0 0.0 240165
-4.570084571838379 1.5974172353744507 6.318238258361816 0.0 1.0 0.0 240125
-4.571598529815674 1.5963796377182007 6.393226146697998 -0.0 1.0 0.0 240126
-0.9633212685585022 4.069225788116455 6.9301557540893555 0.0 0.0 -1.0 509821
-0.559898853302002 4.345701694488525 6.915805339813232 0.0 -0.0 -1.0 509742
-0.26860618591308594 4.545331954956055 6.9199981689453125 0.0 0.0 -1.0 508779
-0.1360234171152115 4.636194229125977 6.9531941413879395 0.0 1.0 0.0 507122
-0.13561156392097473 4.636476516723633 7.011920928955078 0.0 1.0 0.0 507122
-0.13513992726802826 4.6367998123168945 7.070693492889404 0.0 1.0 -0.0 507009
0.4679988920688629 4.983838081359863 0.08702784776687622 0.0 1.0 -0.0 56625
0.4703144431114197 4.985435485839844 0.14538200199604034 0.0 1.0 -0.0 56625
0.46960777044296265 4.984947681427002 0.2028539925813675 0.0 1.0 0.0 619599
0.46891680359840393 4.984470844268799 0.2602587342262268 0.0 1.0 -0.0 619628
0.46825724840164185 4.984015464782715 0.3176007866859436 0.0 -0.0 1.0 616968
0.2727569341659546 4.849141597747803 0.3265472650527954 -0.0 0.0 1.0 617078
0.05395188182592392 4.698190212249756 0.33127617835998535 0.0 0.0 1.0 616353
-0.17122574150562286 4.542841911315918 0.3361281156539917 0.0 -0.0 1.0 616238
-0.47938618063926697 4.330245018005371 0.32308098673820496 0.0 0.0 1.0 615815
-0.6664227247238159 4.201210021972656 0.3405185341835022 1.0 -0.0 0.0 623241
-0.6670242547988892 4.200794696807861 0.4019230008125305 1.0 0.0 0.0 623316
-0.6675880551338196 4.200405597686768 0.46326905488967896 1.0 0.0 -0.0 623219
-0.6653384566307068 4.201957702636719 0.525168240070343 1.0 0.0 -0.0 623535
-0.6658881306648254 4.201578140258789 0.5863745808601379 1.0 0.0 0.0 623547
-0.6663954257965088 4.201228141784668 0.6475258469581604 1.0 0.0 0.0 623912
-0.6668838858604431 4.200891017913818 0.7086179852485657 1.0 0.0 0.0 623952
-0.6647551655769348 4.202359676361084 0.770184338092804 1.0 0.0 0.0 623969
-0.6652263402938843 4.2020344734191895 0.8311474919319153 1.0 0.0 0.0 623967
-0.6656771302223206 4.201723098754883 0.892055332660675 1.0 0.0 -0.0 623218
-0.6661027669906616 4.20142936706543 0.952909529209137 1.0 0.0 0.0 623227
-0.6664938926696777 4.201159477233887 1.0137134790420532 1.0 0.0 0.0 623322
-0.6645112037658691 4.202527046203613 1.0749012231826782 1.0 -0.0 0.0 623215
-0.6649007201194763 4.202258110046387 1.1355849504470825 1.0 0.0 0.0 623925
-0.6652588844299316 4.2020111083984375 1.1962207555770874 1.0 0.0 -0.0 623685
-0.6656075716018677 4.201770305633545 1.2568055391311646 1.0 0.0 0.0 623837
-0.6637551784515381 4.203048229217529 1.317712664604187 1.0 0.0 0.0 623560
-0.6640913486480713 4.202816009521484 1.378189206123352 1.0 -0.0 0.0 623250
-0.6644196510314941 4.202589511871338 1.4386183023452759 1.0 0.0 0.0 623258
-0.6647118926048279 4.202387809753418 1.4990049600601196 1.0 -0.0 0.0 623276
-0.664986789226532 4.202198028564453 1.5593477487564087 1.0 0.0 -0.0 623623
-0.663316547870636 4.20335054397583 1.6199373006820679 1.0 0.0 0.0 623420
-0.6635961532592773 4.203157424926758 1.6801813840866089 1.0 0.0 0.0 623784
-0.6638554334640503 4.202978134155273 1.7403849363327026 1.0 -0.0 0.0 623830
-0.6640989184379578 4.202810287475586 1.8005484342575073 1.0 0.0 0.0 623917
-0.6643142104148865 4.202661514282227 1.8606747388839722 1.0 0.0 0.0 623541
-0.6645184755325317 4.202520370483398 1.9207619428634644 1.0 0.0 -0.0 623353
-0.6630617380142212 4.203525543212891 1.9810224771499634 1.0 0.0 0.0 623361
-0.6632676124572754 4.203383445739746 2.0410265922546387 1.0 0.0 0.0 623542
-0.6634718775749207 4.203242301940918 2.100994348526001 1.0 -0.0 0.0 623377
-0.6636510491371155 4.203118324279785 2.1609294414520264 1.0 0.0 0.0 623559
-0.6638066172599792 4.2030110359191895 2.2208330631256104 1.0 0.0 0.0 623782
-0.6625524163246155 4.20387601852417 2.280855894088745 1.0 -0.0 0.0 623817
-0.6627331376075745 4.203751564025879 2.3406858444213867 1.0 -0.0 0.0 624127
0.4741112291812897 4.9880499839782715 2.515047550201416 0.0 1.0 0.0 624619
0.47398075461387634 4.987959861755371 2.5704805850982666 -0.0 1.0 0.0 624620
0.4738612771034241 4.987877368927002 2.625887870788574 0.0 1.0 -0.0 624659
0.4737527668476105 4.987802505493164 2.6812703609466553 0.0 1.0 0.0 494532
0.47468987107276917 4.988448619842529 2.73671817779541 0.0 1.0 0.0 494532
0.47456881403923035 4.988365173339844 2.7920477390289307 0.0 1.0 -0.0 494442
0.47445717453956604 4.988287925720215 2.847355604171753 0.0 1.0 -0.0 494442
-0.08862737566232681 4.599821090698242 2.860945701599121 0.0 0.0 1.0 496341
-0.42239120602607727 4.369560241699219 2.8949134349823 0.3301616311073303 0.9435462355613708 -0.02671544812619686 560634
-0.42276662588119507 4.369300842285156 2.953555107116699 0.43621665239334106 0.8993983268737793 0.028244072571396828 560648
-0.42141661047935486 4.370232105255127 3.0122878551483154 0.33011385798454285 0.9434096813201904 0.03167017549276352 560660
-0.7396047115325928 4.150716781616211 3.052187442779541 -0.5546704530715942 0.8301246762275696 -0.05686592683196068 560368
-0.6935950517654419 4.182458400726318 3.1145360469818115 -0.4245823323726654 0.9048828482627869 0.030277883633971214 560411
-0.6931886076927185 4.182738780975342 3.1741812229156494 -0.5234683752059937 0.851556658744812 0.02884743921458721 560354
-0.6934227347373962 4.182577133178711 3.2337770462036133 -0.5442432165145874 0.83854079246521 -0.02547118254005909 560396
-0.7011519074440002 4.177244663238525 3.2930328845977783 -0.55488121509552 0.8314778208732605 0.02741357311606407 560436
-0.6855983138084412 4.18797492980957 3.353262186050415 -0.38490092754364014 0.9225683808326721 0.0268121175467968 560437
-0.6928894519805908 4.1829447746276855 3.4125373363494873 -0.4523477852344513 0.8904702663421631 -0.049439262598752975 560413
-1.227639079093933 3.814025402069092 3.454843044281006 -0.9953352212905884 0.09647756069898605 -4.8537560360273346e-05 576794
-1.227655053138733 3.814014434814453 3.5164170265197754 0.9956960082054138 -0.09266351908445358 0.0017297030426561832 576973
-1.2277337312698364 3.813960075378418 3.5779807567596436 0.9955995082855225 -0.09339512139558792 -0.0076744272373616695 577689
-1.2279709577560425 3.813796281814575 3.639533758163452 0.9983556866645813 -0.05585009977221489 0.012912701815366745 577590
-1.2280653715133667 3.8137309551239014 3.701084613800049 0.997402012348175 -0.07174821943044662 0.006427849642932415 577184
-1.2280560731887817 3.813737154006958 3.762631893157959 0.9970327615737915 -0.07644433528184891 -0.00904785469174385 577251
-1.2276026010513306 3.8140499591827393 3.8241794109344482 0.9960094094276428 -0.08913768082857132 -0.004439227748662233 577766
-1.2275933027267456 3.814056158065796 3.8857178688049316 0.9919557571411133 -0.12434800714254379 -0.023691745474934578 576881
-1.2281367778778076 3.813681125640869 3.9472532272338867 0.9960960745811462 -0.08762461692094803 0.010701727122068405 577317
-1.227647066116333 3.814018964767456 4.008790493011475 0.9960752725601196 -0.08761312067508698 -0.012573900632560253 577097
-1.2018399238586426 3.8318228721618652 4.070180416107178 0.9988341927528381 -0.04242989048361778 -0.02302091382443905 594161
-1.2011539936065674 3.8322958946228027 4.1316142082214355 0.9988341927528381 -0.04242989048361778 0.0230209119617939 594160
-1.227539300918579 3.8140928745269775 4.193405628204346 0.9954220056533813 -0.095249243080616 0.007903496734797955 613796
-0.6996272206306458 4.178294658660889 4.245942115783691 -0.4397251605987549 0.897574782371521 0.03164206072688103 514931
-0.7077254056930542 4.172707557678223 4.30565881729126 -0.48174259066581726 0.8759640455245972 0.024721965193748474 514947
-0.7132471799850464 4.168898105621338 4.365379810333252 -0.49687013030052185 0.8678243160247803 0.0010553342290222645 514943
-0.7135001420974731 4.1687235832214355 4.425000190734863 -0.49687013030052185 0.8678243160247803 0.0010553342290222645 514943
-0.7138566970825195 4.168477535247803 4.484634876251221 -0.49751242995262146 0.8674566745758057 0.00045109522761777043 514952
-0.03236278519034386 4.638634204864502 4.519707679748535 0.0 1.0 0.0 510488
-0.032785285264253616 4.638342380523682 4.5767822265625 0.0 1.0 0.0 510488
-0.03275720030069351 4.638361930847168 4.633852005004883 0.0 1.0 -0.0 510371
-0.03271498531103134 4.63839054107666 4.690933704376221 0.0 1.0 -0.0 510371
-0.46725916862487793 4.338602542877197 4.770294189453125 0.2583746016025543 0.9639777541160583 -0.06316278874874115 515525
-1.2276779413223267 3.813995838165283 4.870906829833984 0.995628297328949 -0.09249870479106903 -0.01297132857143879 612985
-2.6407017707824707 2.839162826538086 5.015713214874268 0.2999696135520935 0.9539434313774109 -0.003190843388438225 607763
-2.6405229568481445 2.8392860889434814 5.082765579223633 0.2559225261211395 0.9666128754615784 -0.012777836062014103 607925
-1.249873399734497 3.7986831665039062 5.05745267868042 1.0 -0.0 0.0 615011
-2.6413822174072266 2.838693141937256 5.21701717376709 0.29892927408218384 0.954185426235199 -0.013093262910842896 607871
-2.640537738800049 2.839275598526001 5.284089088439941 0.25567466020584106 0.9666746258735657 -0.013063505291938782 607865
-4.106085300445557 1.8282067775726318 5.46535587310791 0.0 1.0 0.0 201978
-4.1059393882751465 1.8283072710037231 5.538110733032227 0.0 1.0 0.0 201125
-4.105778217315674 1.828418493270874 5.610894203186035 0.0 1.0 0.0 201294
-4.107008934020996 1.8275690078735352 5.683832168579102 0.0 1.0 -0.0 200853
-4.10687255859375 1.8276629447937012 5.756686210632324 0.0 1.0 -0.0 200622
-4.106716156005859 1.8277709484100342 5.829571723937988 -0.0 1.0 0.0 201233
-4.439946174621582 1.597878098487854 5.936079978942871 0.0 1.0 0.0 240144
-4.439718723297119 1.5980348587036133 6.010303497314453 0.0 1.0 0.0 240155
-4.43952751159668 1.5981667041778564 6.084568977355957 0.0 1.0 0.0 240135
-4.441113471984863 1.5970724821090698 6.159074306488037 0.0 1.0 0.0 240140
-4.440892219543457 1.5972249507904053 6.233424663543701 0.0 1.0 0.0 240142
-4.440659999847412 1.5973849296569824 6.307816505432129 0.0 1.0 0.0 240154
-4.440443992614746 1.5975340604782104 6.382254123687744 -0.0 1.0 0.0 240146
-0.9286972284317017 4.020256042480469 6.930122375488281 -0.0 0.0 -1.0 509732
-0.5261902213096619 4.297942161560059 6.915779113769531 0.0 0.0 -1.0 509459
-0.23578467965126038 4.498290538787842 6.920019626617432 0.0 -0.0 -1.0 508772
-0.035912077873945236 4.636180400848389 6.939899444580078 0.0 0.0 -1.0 509638
-0.035475801676511765 4.636481285095215 6.998356819152832 0.0 1.0 0.0 506994
-0.03501754626631737 4.6367974281311035 7.0568671226501465 0.0 1.0 0.0 507048
-0.03707283362746239 4.635379314422607 7.115960121154785 0.0 1.0 -0.0 507133
0.5645840764045715 4.98433256149292 0.047054223716259 0.0 1.0 0.0 56793
0.5638020634651184 4.983789443969727 0.10440556704998016 0.0 1.0 -0.0 56624
0.5661329627037048 4.985407829284668 0.16250771284103394 0.0 1.0 0.0 619603
0.5653917193412781 4.984893321990967 0.21971291303634644 0.0 1.0 0.0 619610
0.56472247838974 4.984428405761719 0.2768658995628357 0.0 1.0 -0.0 619621
0.5640438795089722 4.983956813812256 0.333946168422699 0.0 -0.0 1.0 616983
0.3042941689491272 4.803567409515381 0.32656192779541016 0.0 0.0 1.0 615763
0.08602526783943176 4.651985168457031 0.3313070833683014 -0.0 0.0 1.0 616492
-0.13888296484947205 4.495791912078857 0.3361068069934845 0.0 0.0 1.0 616077
-0.44628289341926575 4.282310485839844 0.3230831027030945 0.0 0.0 1.0 615829
-0.6664082407951355 4.129439353942871 0.3327256143093109 1.0 0.0 0.0 623208
-0.6669960021972656 4.129030704498291 0.3942650258541107 1.0 0.0 0.0 623217
-0.6675602793693542 4.128638744354248 0.455742210149765 1.0 -0.0 0.0 623929
-0.665315568447113 4.130197525024414 0.5177735090255737 1.0 0.0 0.0 623909
-0.6658563017845154 4.12982177734375 0.5791130661964417 1.0 -0.0 0.0 623866
-0.6663751602172852 4.129461288452148 0.6403928399085999 1.0 -0.0 0.0 623866
-0.6668626070022583 4.129122734069824 0.7016165852546692 1.0 0.0 0.0 623730
-0.6647275686264038 4.130605220794678 0.7633165121078491 1.0 0.0 0.0 623238
-0.6652088165283203 4.130270957946777 0.8244084119796753 1.0 0.0 0.0 623216
-0.6656602621078491 4.129957675933838 0.8854469060897827 1.0 0.0 0.0 623216
-0.6660725474357605 4.129671096801758 0.9464343190193176 1.0 0.0 -0.0 623228
-0.6664628982543945 4.12939977645874 1.0073689222335815 1.0 0.0 0.0 623205
-0.6644766926765442 4.130778789520264 1.0686882734298706 1.0 0.0 0.0 623531
-0.6648670434951782 4.130507946014404 1.1295024156570435 1.0 0.0 -0.0 623924
-0.6652213931083679 4.130261421203613 1.190268874168396 1.0 0.0 0.0 623635
-0.6655709743499756 4.130018711090088 1.2509833574295044 1.0 0.0 -0.0 623596
-0.6637195348739624 4.1313042640686035 1.3120211362838745 1.0 0.0 0.0 623813
-0.6640550494194031 4.131071090698242 1.3726273775100708 1.0 0.0 0.0 623696
-0.6643827557563782 4.130843639373779 1.4331861734390259 1.0 0.0 0.0 623415
-0.6646775007247925 4.130638599395752 1.4937022924423218 1.0 0.0 -0.0 623742
-0.6649503707885742 4.130448818206787 1.554174542427063 1.0 0.0 0.0 623418
-0.6632822155952454 4.131607532501221 1.6148937940597534 1.0 0.0 0.0 623793
-0.6635503172874451 4.131421089172363 1.6752687692642212 1.0 0.0 0.0 623793
-0.6638153791427612 4.131237030029297 1.7356003522872925 1.0 0.0 0.0 623794
-0.6640663146972656 4.1310625076293945 1.7958921194076538 1.0 0.0 0.0 623942
-0.6642764806747437 4.130916118621826 1.8561478853225708 1.0 0.0 0.0 623942
-0.6644772887229919 4.130776882171631 1.9163647890090942 1.0 -0.0 0.0 623894
-0.6630299687385559 4.131781578063965 1.9767533540725708 1.0 -0.0 0.0 623839
-0.6632338762283325 4.1316399574279785 2.036886215209961 1.0 0.0 0.0 623306
-0.6634331345558167 4.1315016746521 2.0969834327697754 1.0 0.0 0.0 623306
-0.6636120080947876 4.131377220153809 2.1570472717285156 1.0 -0.0 0.0 623961
-0.6637673377990723 4.1312689781188965 2.2170791625976562 1.0 0.0 0.0 623970
-0.6625127196311951 4.132140159606934 2.277230978012085 1.0 -0.0 0.0 624102
-0.6626884937286377 4.132018089294434 2.3371896743774414 1.0 0.0 0.0 624109
0.5698747038841248 4.988001346588135 2.5215930938720703 0.0 1.0 0.0 624617
0.5697413086891174 4.987908840179443 2.5767784118652344 0.0 1.0 0.0 624571
0.5696204304695129 4.987824440002441 2.6319384574890137 0.0 1.0 -0.0 624658
0.5695152282714844 4.987751483917236 2.6870744228363037 0.0 1.0 0.0 494424
0.5704486966133118 4.988399505615234 2.742274761199951 0.0 1.0 0.0 494424
0.5703278183937073 4.988315582275391 2.7973573207855225 0.0 1.0 -0.0 494550
0.5702163577079773 4.9882378578186035 2.8524186611175537 0.0 -0.0 1.0 495524
-0.05628002807497978 4.553152084350586 2.860964298248291 0.0 0.0 1.0 496704
-0.364667147397995 4.338984966278076 2.89666748046875 0.5317954421043396 0.8463512063026428 -0.02971668727695942 560668
-0.3632511794567108 4.339968204498291 2.9553346633911133 0.531817615032196 0.8463866114616394 0.028281131759285927 560627
-0.3639611005783081 4.339475154876709 3.0138370990753174 0.531817615032196 0.8463866114616394 0.028281131759285927 560627
-0.55330890417099 4.207977771759033 3.061201333999634 0.19504126906394958 0.9805424809455872 -0.022258901968598366 561311
-0.5528641939163208 4.208286285400391 3.1204605102539062 0.1730978637933731 0.9849045872688293 -0.0 561317
-0.5504597425460815 4.209956169128418 3.179800271987915 0.10793618857860565 0.9941578507423401 -0.0 561387
-0.550643265247345 4.209828853607178 3.238982915878296 0.10972441732883453 0.9937518835067749 0.020443802699446678 561348
-0.5512498021125793 4.209407329559326 3.2981343269348145 0.08544859290122986 0.9952946901321411 -0.045683614909648895 561432
-0.5492886900901794 4.210769176483154 3.357379198074341 0.21597035229206085 0.9763998985290527 -0.0 561304
-0.5490413904190063 4.210940837860107 3.4165356159210205 0.2518118917942047 0.9677761793136597 -0.0 561389
-0.7359358668327332 4.081147193908691 3.4696290493011475 0.0 0.0 1.0 561448
-1.236750602722168 3.733344078063965 3.5151803493499756 -0.9879995584487915 0.15441559255123138 -0.003580947872251272 577648
-1.236829161643982 3.7332892417907715 3.5769107341766357 0.9879828095436096 -0.15451884269714355 -0.0037326759193092585 577575
-1.237269639968872 3.732983112335205 3.6386263370513916 0.990117609500885 -0.14008338749408722 0.0066262283362448215 576747
-1.2375911474227905 3.732759952545166 3.700340747833252 0.988735556602478 -0.14945940673351288 -0.007991299964487553 576761
-1.2372483015060425 3.7329978942871094 3.7620608806610107 0.9884433150291443 -0.15158936381340027 -0.0006514581618830562 576883
-1.2368255853652954 3.7332911491394043 3.823775053024292 0.9880419969558716 -0.15412142872810364 -0.004426256287842989 576923
-1.2375479936599731 3.7327892780303955 3.885476589202881 0.9926198720932007 -0.119120754301548 0.02271435037255287 576815
-1.2366145849227905 3.7334375381469727 3.9471848011016846 0.9868375062942505 -0.16157738864421844 0.006670648232102394 577880
-1.2367057800292969 3.7333741188049316 4.00888729095459 0.9913190603256226 -0.13087715208530426 0.012563051655888557 577130
-1.2094484567642212 3.7523033618927 4.070435523986816 0.9916375279426575 -0.1269843578338623 -0.02302294224500656 594137
-1.2086732387542725 3.7528417110443115 4.1320295333862305 0.9916375875473022 -0.1269843578338623 0.02301611378788948 594186
-0.5518442988395691 4.2089924812316895 4.184896945953369 0.1948014795780182 0.9793369770050049 -0.054328225553035736 515307
-0.5517818927764893 4.209035873413086 4.244004249572754 0.14073604345321655 0.9900472164154053 -0.0 515305
-0.552295982837677 4.208678722381592 4.303128719329834 0.1598195880651474 0.9871461987495422 -0.0 515296
-0.5527552962303162 4.208359241485596 4.362261772155762 0.16677285730838776 0.9859308004379272 0.011280376464128494 515279
-0.5527148246765137 4.20838737487793 4.421391487121582 0.1717410832643509 0.9851387739181519 -0.002567606046795845 515265
-0.5525693893432617 4.208488464355469 4.480525970458984 0.17025579512119293 0.9853999018669128 -0.0 515278
0.06674071401357651 4.638583183288574 4.517308235168457 0.0 1.0 0.0 510384
0.06628771126270294 4.63826847076416 4.574129104614258 0.0 1.0 0.0 510384
0.06632663309574127 4.638295650482178 4.63094425201416 0.0 1.0 -0.0 510471
0.0663890466094017 4.638338565826416 4.687770366668701 0.0 1.0 -0.0 510471
-0.4050532877445221 4.310933589935303 4.768816947937012 0.49901142716407776 0.8642994165420532 -0.06304100155830383 515494
-1.2370777130126953 3.7331137657165527 4.873355865478516 0.9913849830627441 -0.13051852583885193 0.010981565341353416 612958
-2.553147554397583 2.819136381149292 5.012789726257324 0.21295209228992462 0.9770582914352417 -0.0029309617821127176 607768
-2.553365707397461 2.8189847469329834 5.079677104949951 0.21299238502979279 0.9769684076309204 0.01292396429926157 607931
-1.249832272529602 3.7242555618286133 5.059781551361084 1.0 0.0 0.0 615013
-2.5537469387054443 2.8187198638916016 5.213519096374512 0.2120637148618698 0.9771701097488403 -0.012942359782755375 607868
-2.5534651279449463 2.818915367126465 5.280442714691162 0.1672639101743698 0.9858248233795166 -0.013124081306159496 607928
-3.9800961017608643 1.8281559944152832 5.458726406097412 0.0 1.0 0.0 201800
-3.9799273014068604 1.8282731771469116 5.531155109405518 0.0 1.0 0.0 201074
-3.9798085689544678 1.8283554315567017 5.603616714477539 0.0 1.0 0.0 201074
-3.9809839725494385 1.827539086341858 5.676225185394287 0.0 1.0 0.0 200858
-3.980882406234741 1.8276094198226929 5.748757362365723 0.0 1.0 0.0 200671
-3.980705738067627 1.827731966972351 5.821315765380859 0.0 1.0 0.0 200691
-4.315799236297607 1.5950177907943726 5.927757263183594 0.04547228664159775 0.9989656209945679 0.0001257705589523539 235815
-4.315591335296631 1.5951621532440186 6.00166654586792 0.045929890125989914 0.9989445209503174 -0.0006033820100128651 235809
-4.315370559692383 1.5953150987625122 6.075613498687744 0.046105507761240005 0.9989365339279175 0.0 235805
-1.8045090436935425 3.3390450477600098 5.867277145385742 0.812559187412262 -0.292964905500412 -0.5039039254188538 636065
-4.316723346710205 1.594375491142273 6.223834991455078 0.04610550403594971 0.9989365339279175 0.0 235806
-4.316501140594482 1.5945295095443726 6.297911167144775 0.046105507761240005 0.998936653137207 0.0 235802
-4.3162617683410645 1.5946955680847168 6.3720293045043945 0.045929886400699615 0.9989445209503174 0.0006033848621882498 235810
-1.8121192455291748 3.333759307861328 6.126183986663818 0.7360074520111084 -0.6703361868858337 0.09456397593021393 636070
-1.7906662225723267 3.3486578464508057 6.18797492980957 0.95891273021698 0.24590380489826202 -0.14148421585559845 635700
-1.7727130651474 3.3611257076263428 6.250119209289551 0.7808858752250671 0.5420238375663757 -0.3105277419090271 635686
-0.8945709466934204 3.9709715843200684 6.9301347732543945 0.0 0.0 -1.0 509421
-0.4929608404636383 4.249879360198975 6.915799140930176 -0.0 0.0 -1.0 509426
-0.20319943130016327 4.451111316680908 6.920044422149658 0.0 0.0 -1.0 509959
0.06321626156568527 4.636130332946777 6.926699638366699 0.0 0.0 -1.0 509576
0.06362488865852356 4.636414051055908 6.984901428222656 0.0 1.0 0.0 507121
0.06406955420970917 4.636722564697266 7.043152809143066 0.0 1.0 0.0 507050
0.06206246092915535 4.635328769683838 7.101975440979004 0.0 1.0 -0.0 507008
0.6607141494750977 4.9843597412109375 0.06466064602136612 -0.0 1.0 0.0 56794
0.6599635481834412 4.983835220336914 0.12176188826560974 0.0 1.0 -0.0 56623
0.6622580885887146 4.985439300537109 0.17959724366664886 0.0 1.0 0.0 619607
0.6615043878555298 4.984911918640137 0.23654089868068695 -0.0 1.0 0.0 619626
0.6608288288116455 4.984439849853516 0.2934347093105316 0.0 1.0 -0.0 619615
0.6141108870506287 4.951777458190918 0.3386060893535614 -0.0 0.0 1.0 617076
0.336536705493927 4.757717132568359 0.3265669047832489 0.0 0.0 1.0 615763
0.11857976019382477 4.605337142944336 0.33127111196517944 0.0 0.0 1.0 616228
-0.10575971752405167 4.4484944343566895 0.33608970046043396 0.0 0.0 1.0 615945
-0.4123828113079071 4.234125137329102 0.32309091091156006 0.0 -0.0 1.0 615789
-0.6530640125274658 4.065857887268066 0.3278252184391022 1.0 0.0 0.0 623570
-0.6670267581939697 4.056096076965332 0.38637903332710266 1.0 0.0 0.0 623221
-0.6675897240638733 4.055702209472656 0.44799116253852844 1.0 0.0 0.0 623204
-0.6653468012809753 4.057270050048828 0.5101578831672668 1.0 0.0 0.0 623868
-0.665884792804718 4.056893825531006 0.5716319680213928 1.0 0.0 0.0 623654
-0.6664103269577026 4.056526184082031 0.6330447793006897 1.0 -0.0 0.0 623867
-0.6668998599052429 4.056183815002441 0.6944018006324768 1.0 0.0 0.0 623928
-0.6647538542747498 4.057683944702148 0.7562389969825745 1.0 0.0 0.0 623359
-0.6652339696884155 4.057348251342773 0.8174648880958557 1.0 0.0 -0.0 623975
-0.6656797528266907 4.057036399841309 0.8786378502845764 1.0 0.0 0.0 623895
-0.6660958528518677 4.056745529174805 0.9397581219673157 1.0 0.0 0.0 623737
-0.6665025353431702 4.056460857391357 1.0008227825164795 1.0 0.0 0.0 623827
-0.6645128130912781 4.057851791381836 1.06227707862854 1.0 0.0 0.0 623531
-0.6648991703987122 4.057581901550293 1.1232247352600098 1.0 0.0 0.0 623778
-0.6652730703353882 4.0573201179504395 1.1841206550598145 1.0 0.0 0.0 623411
-0.665612518787384 4.057082653045654 1.2449698448181152 1.0 0.0 -0.0 623596
-0.6637635231018066 4.058375358581543 1.3061408996582031 1.0 0.0 0.0 623724
-0.6641061305999756 4.058135509490967 1.3668789863586426 1.0 0.0 0.0 623501
-0.6644189953804016 4.057916641235352 1.42757248878479 1.0 0.0 0.0 623415
-0.6647194027900696 4.057706832885742 1.488219976425171 1.0 0.0 0.0 623809
-0.664996325969696 4.0575127601623535 1.5488238334655762 1.0 0.0 0.0 623648
-0.6633161902427673 4.058687210083008 1.6096781492233276 1.0 0.0 0.0 623732
-0.6636024713516235 4.0584869384765625 1.6701825857162476 1.0 -0.0 0.0 623828
-0.6638637781143188 4.058304309844971 1.730647087097168 1.0 0.0 0.0 623706
-0.664095401763916 4.058142185211182 1.7910730838775635 1.0 0.0 0.0 623949
-0.664325475692749 4.057981491088867 1.8514580726623535 1.0 0.0 0.0 623959
-0.6645304560661316 4.057837963104248 1.911806344985962 1.0 0.0 0.0 623945
-0.6630628705024719 4.058863639831543 1.9723297357559204 1.0 -0.0 0.0 623954
-0.6632819771766663 4.05871057510376 2.032592296600342 1.0 -0.0 0.0 623631
-0.6634714007377625 4.058578014373779 2.0928220748901367 1.0 0.0 0.0 623251
-0.6636420488357544 4.05845832824707 2.1530182361602783 1.0 0.0 0.0 623922
-0.6638126969337463 4.0583391189575195 2.2131800651550293 1.0 0.0 0.0 624032
-0.6625639200210571 4.059211730957031 2.2734627723693848 1.0 0.0 0.0 624032
-0.6627392768859863 4.059089183807373 2.333552837371826 1.0 0.0 0.0 624084
0.6659967303276062 4.988048076629639 2.5280914306640625 0.0 1.0 0.0 624615
0.6658667325973511 4.987957000732422 2.58302903175354 0.0 1.0 -0.0 624657
0.6657461524009705 4.98787260055542 2.637941360473633 0.0 1.0 -0.0 624657
0.6656427383422852 4.987800121307373 2.6928296089172363 0.0 1.0 0.0 494531
0.6665648221969604 4.988444805145264 2.74778151512146 0.0 1.0 0.0 494482
0.666445791721344 4.988361358642578 2.802616834640503 0.0 1.0 -0.0 494441
0.6663392186164856 4.98828649520874 2.857430934906006 0.0 -0.0 1.0 497035
-0.022553445771336555 4.506661415100098 2.8609864711761475 0.0 0.0 1.0 496663
-0.31355881690979004 4.303210735321045 2.8978655338287354 0.6224134564399719 0.7821449041366577 0.029169870540499687 560649
-0.3148815333843231 4.302285671234131 2.956282615661621 0.6240590810775757 0.7808456420898438 -0.02881615050137043 560639
-0.3128761947154999 4.303687572479248 3.0148990154266357 0.7068031430244446 0.706801176071167 0.029349198564887047 560659
-0.4804951846599579 4.186500072479248 3.063455820083618 0.5552277565002441 0.8309587240219116 -0.03506863862276077 561345
-0.48123013973236084 4.185986042022705 3.1225013732910156 0.5062423944473267 0.8621460199356079 0.020561760291457176 561363
-0.479707807302475 4.1870503425598145 3.181652069091797 0.5355116724967957 0.8445032238960266 -0.006442704703658819 561300
-0.47912031412124634 4.187460899353027 3.2407310009002686 0.5368430018424988 0.8436149954795837 -0.01064555998891592 561377
-0.4786406457424164 4.187796115875244 3.299786329269409 0.41180360317230225 0.9111785888671875 0.013091186061501503 561400
-0.47900980710983276 4.187537670135498 3.358790636062622 0.39815446734428406 0.917186439037323 0.015561630949378014 561404
-0.47930237650871277 4.187333106994629 3.4177887439727783 0.46036890149116516 0.8874894976615906 -0.020565617829561234 561429
-0.5589757561683655 4.131630897521973 3.47420597076416 -0.3351697623729706 -0.6595867872238159 0.6727602481842041 506418
-0.5590198040008545 4.1315999031066895 3.5334973335266113 0.28981277346611023 0.9570833444595337 -0.0 506418
-0.5591138601303101 4.131534099578857 3.5927791595458984 0.2916627526283264 0.956521213054657 -0.0 506277
